ply
format ascii 1.0
element vertex 1242
property float x
property float y
property float z
property uchar red
property uchar green
property uchar blue
end_header
44.9353 -36.3971 -24.6893  255 255 255
-47.6695 -50.0305 22.7318  255 255 255
-10.2335 -49.2418 -0.743262  255 255 255
54.5074 -53.1828 -12.7097  255 255 255
54.608 -55.5907 -15.4235  255 255 255
49.5982 -53.2377 -25.2586  255 255 255
-36.7844 -59.5749 -1.68198  255 255 255
-52.8021 -71.6877 5.49659  255 255 255
0.208651 57.4305 9.41182  255 255 255
34.9701 58.5949 -13.5976  255 255 255
61.9243 12.6427 9.21161  255 255 255
61.6936 12.4154 7.87369  255 255 255
55.698 16.2916 -0.974372  255 255 255
-33.448 7.42955 25.2898  255 255 255
29.8552 10.4572 -7.92537  255 255 255
4.60386 17.4659 -11.3905  255 255 255
-33.7358 0.136372 21.1742  255 255 255
-40.1251 -4.19911 27.903  255 255 255
36.0312 2.07096 -12.129  255 255 255
-38.2802 -16.6486 38.4315  255 255 255
-9.31 5.80918 -8.61165  255 255 255
-38.754 -10.8049 23.4442  255 255 255
-38.4799 -11.1009 23.8197  255 255 255
-12.1547 -4.78319 -2.47006  255 255 255
-0.612313 -4.10956 -10.8526  255 255 255
-41.7919 -28.8379 44.6767  255 255 255
49.3416 -9.62354 -16.8606  255 255 255
57.0763 -11.7888 -15.9087  255 255 255
-3.09916 -4.85814 -12.2244  255 255 255
0.649308 -9.92492 -12.9055  255 255 255
-5.21067 -11.4343 -12.4675  255 255 255
52.2515 -18.7807 -18.2591  255 255 255
-2.34357 -19.1214 -11.7491  255 255 255
-42.4088 -32.2346 26.066  255 255 255
-1.60458 -20.1082 -11.6552  255 255 255
-44.4544 -34.7309 18.3909  255 255 255
-45.9131 -41.176 31.9794  255 255 255
57.9447 -35.7078 -18.2838  255 255 255
-41.9901 -43.8936 20.974  255 255 255
68.4985 -57.9359 22.4027  255 255 255
59.5846 -51.0258 -0.553283  255 255 255
46.9842 -43.5925 -23.5486  255 255 255
-48.4757 -52.3384 23.6813  255 255 255
-48.5939 -52.2922 23.4745  255 255 255
56.2292 -52.7276 -9.16756  255 255 255
11.6248 -47.8853 -12.3741  255 255 255
65.8286 -67.6345 20.5952  255 255 255
-50.4022 -59.9164 22.6586  255 255 255
56.3152 -58.1571 -12.5148  255 255 255
57.0449 -58.2435 -14.0622  255 255 255
57.1591 -58.6995 -12.8034  255 255 255
-51.8081 -70.6113 9.80689  255 255 255
54.787 -66.3408 -31.3922  255 255 255
-39.6464 -74.2775 -12.6984  255 255 255
-51.5936 -82.5043 -2.64685  255 255 255
7.76471 47.3048 10.8231  255 255 255
19.5445 35.0498 16.8419  255 255 255
50.1979 26.7884 0.0470564  255 255 255
-31.0893 5.61334 36.9004  255 255 255
70.9891 -2.39188 8.66196  255 255 255
-32.4736 6.19619 25.0835  255 255 255
62.6477 -2.95301 9.46411  255 255 255
31.7708 9.52272 -9.26883  255 255 255
26.6721 -0.354667 -14.5666  255 255 255
-40.9298 -26.4978 36.8101  255 255 255
-41.2468 -23.1448 27.1952  255 255 255
-42.5162 -26.2208 32.68  255 255 255
-43.1629 -33.4648 37.3302  255 255 255
-42.6491 -31.403 31.2203  255 255 255
-42.7294 -31.47 30.9731  255 255 255
-2.14605 -21.484 -11.1601  255 255 255
46.4077 -23.527 -24.5249  255 255 255
-50.5825 -56.3878 26.7092  255 255 255
49.6086 -48.9409 -20.1442  255 255 255
55.3112 -58.2649 -16.069  255 255 255
-40.7001 -55.3711 -4.0342  255 255 255
-51.7159 -65.3308 15.7069  255 255 255
59.1301 -65.5919 -14.9412  255 255 255
39.9637 -67.6958 -39.9396  255 255 255
22.5737 -93.6397 -15.327  255 255 255
-32.1238 7.68409 39.2573  255 255 255
-17.5733 15.1543 23.8914  255 255 255
55.9555 21.2702 -6.27233  255 255 255
-33.0645 2.07836 36.062  255 255 255
59.9866 0.154094 4.46858  255 255 255
56.8707 5.1513 -8.636  255 255 255
-16.9002 -1.62247 7.38444  255 255 255
53.6388 -20.5125 -18.4401  255 255 255
-43.1652 -29.4539 23.5987  255 255 255
-42.2538 -33.2202 29.0503  255 255 255
-42.4725 -34.8261 19.4694  255 255 255
-45.2009 -40.4287 21.3719  255 255 255
-48.4852 -52.1219 17.8453  255 255 255
57.6523 -57.9149 -6.26758  255 255 255
50.8764 -54.9719 -22.5159  255 255 255
0.909899 32.3751 7.75857  255 255 255
69.875 -9.15223 5.92789  255 255 255
15.3039 7.75874 -12.3068  255 255 255
-39.8107 -26.6451 47.1036  255 255 255
-20.669 -5.17059 -7.44192  255 255 255
-42.2432 -31.2299 39.5215  255 255 255
-43.4956 -37.4518 35.9725  255 255 255
-46.9434 -35.0132 31.4668  255 255 255
-40.9107 -32.1642 18.8519  255 255 255
-44.7459 -37.4792 24.05  255 255 255
58.7269 -56.9675 -3.92313  255 255 255
-50.639 -57.9891 26.1046  255 255 255
-11.0081 28.8099 3.61083  255 255 255
-50.7009 -55.81 27.6341  255 255 255
-44.8499 -37.3735 32.8711  255 255 255
-45.5508 -36.7284 32.1716  255 255 255
29.9424 25.9957 -13.7399  255 255 255
-43.3596 -34.6245 45.3735  255 255 255
-44.431 -35.5056 15.3962  255 255 255
-52.5507 -64.7179 20.4486  255 255 255
-52.1367 -64.9287 20.9843  255 255 255
-52.0172 -66.2986 16.7839  255 255 255
-52.2464 -66.1783 16.5016  255 255 255
13.0293 26.6618 8.81616  255 255 255
-38.8305 -23.529 37.5941  255 255 255
-8.77469 -22.4725 -6.52882  255 255 255
-8.67106 -22.5692 -6.33827  255 255 255
57.8235 -65.5649 -3.19393  255 255 255
40.3224 19.234 -13.7077  255 255 255
33.4897 -82.7885 -43.312  255 255 255
-37.7305 3.96886 33.6686  255 255 255
-28.7113 -48.7946 0.984638  255 255 255
44.3301 -20.1654 -15.7669  255 255 255
-44.3942 -65.2714 -8.09757  255 255 255
38.7139 122.103 -10.0143  255 255 255
27.0053 110.141 -5.94635  255 255 255
18.4309 96.4417 3.12957  255 255 255
-6.72697 37.8121 65.7662  255 255 255
-27.3365 98.8021 1.76734  255 255 255
15.6208 99.3571 -13.7128  255 255 255
7.76398 82.4197 -9.96169  255 255 255
58.5298 51.5183 8.34173  255 255 255
68.5408 34.9453 22.0729  255 255 255
-8.34516 76.84 -4.41143  255 255 255
4.26519 70.7771 0.381185  255 255 255
79.8826 17.2002 35.1883  255 255 255
19.8161 69.2618 -5.54947  255 255 255
-40.2434 68.3948 14.54  255 255 255
80.4688 16.2581 34.6581  255 255 255
76.3919 15.1549 36.9093  255 255 255
77.8892 -3.47619 56.516  255 255 255
12.9713 63.7719 -2.82009  255 255 255
9.40515 67.7265 -12.724  255 255 255
80.0675 10.6777 34.8826  255 255 255
80.7477 8.92348 35.4398  255 255 255
18.7723 65.3066 -15.9106  255 255 255
82.1816 8.03475 34.7004  255 255 255
-29.7365 14.6613 63.1744  255 255 255
-29.3834 16.3994 60.3889  255 255 255
77.3876 5.17032 35.8202  255 255 255
13.8582 54.431 -5.96006  255 255 255
-17.8646 -16.1306 94.008  255 255 255
9.89715 53.6535 -5.87357  255 255 255
-6.96929 61.1319 -11.6496  255 255 255
-10.0586 51.8197 2.52561  255 255 255
6.61505 44.2458 3.04387  255 255 255
74.7141 3.77147 32.7423  255 255 255
-6.32002 40.1397 8.64025  255 255 255
-30.8155 11.9873 53.186  255 255 255
-8.21822 37.4654 10.2687  255 255 255
8.89296 42.8979 -6.92697  255 255 255
52.9942 36.3039 -12.4572  255 255 255
20.7516 40.6077 -7.88395  255 255 255
13.0573 33.5149 -0.275941  255 255 255
12.7467 34.1355 -1.2525  255 255 255
-32.497 10.607 46.8062  255 255 255
-32.5497 34.4916 12.8208  255 255 255
-18.413 35.3708 5.46088  255 255 255
-19.1453 34.2341 6.38161  255 255 255
43.432 35.8227 -20.1175  255 255 255
-31.8973 1.49827 53.6594  255 255 255
-2.55294 29.4493 2.85825  255 255 255
69.6712 4.6472 11.7612  255 255 255
-64.2172 31.6602 6.73757  255 255 255
-28.0586 25.0031 8.22648  255 255 255
-37.9404 15.3158 25.0328  255 255 255
-23.8176 25.1711 4.19753  255 255 255
-33.4956 -0.298806 44.959  255 255 255
-34.6785 2.55966 39.7074  255 255 255
-61.0203 25.7712 10.165  255 255 255
44.4744 24.6473 -21.2229  255 255 255
-33.1986 -3.75625 48.6434  255 255 255
-29.7535 19.4781 9.63923  255 255 255
73.2582 -0.652775 6.98365  255 255 255
-42.3163 21.3377 10.6526  255 255 255
53.545 15.9165 -12.6477  255 255 255
-22.7826 15.0988 12.1385  255 255 255
-65.4942 25.7671 6.61894  255 255 255
-14.1595 20.9929 -3.5174  255 255 255
-39.8822 9.77156 19.8137  255 255 255
0.813622 18.3601 -7.36504  255 255 255
58.2203 8.13928 -9.78818  255 255 255
33.2397 15.0217 -13.7205  255 255 255
-33.391 -14.2741 56.0426  255 255 255
-42.7438 14.8278 10.9394  255 255 255
-41.9176 14.0285 11.2672  255 255 255
-68.4197 20.9115 4.18625  255 255 255
-22.4016 13.901 4.01563  255 255 255
-4.4491 15.8933 -6.94787  255 255 255
-35.907 9.24621 13.4017  255 255 255
36.6424 11.3611 -14.3512  255 255 255
-37.9268 6.64177 16.977  255 255 255
-24.9461 9.95884 4.13764  255 255 255
32.7066 8.80211 -13.9398  255 255 255
39.9261 4.99509 -12.3921  255 255 255
-41.7369 -0.21077 19.1532  255 255 255
-27.887 3.35037 7.23172  255 255 255
28.9459 5.21286 -14.7148  255 255 255
-37.2672 -10.5049 33.0716  255 255 255
21.1072 6.76883 -16.9109  255 255 255
-48.3774 0.22304 16.0127  255 255 255
-9.95893 2.33015 -3.27164  255 255 255
60.4309 -6.56751 -11.1121  255 255 255
33.9876 -0.179113 -14.1084  255 255 255
9.66647 3.13049 -12.2821  255 255 255
43.0405 -1.68585 -14.8829  255 255 255
-35.7528 -21.9066 47.0897  255 255 255
32.5392 -1.30484 -14.0764  255 255 255
-24.7355 -3.27305 7.52133  255 255 255
-24.4623 -3.63463 8.00675  255 255 255
60.4407 -8.94384 -10.1424  255 255 255
33.4695 -1.44728 -16.1457  255 255 255
45.779 -2.72996 -19.6085  255 255 255
33.2012 -2.92503 -15.6447  255 255 255
17.037 1.54346 -19.8639  255 255 255
23.5859 -1.68955 -17.145  255 255 255
-39.313 -6.78637 10.8179  255 255 255
14.834 -0.801112 -18.9054  255 255 255
27.1671 -5.0185 -15.1325  255 255 255
-32.6583 -9.43617 12.8352  255 255 255
59.6371 -9.63642 -17.2356  255 255 255
0.301467 -2.37846 -13.095  255 255 255
44.848 -5.79583 -21.1373  255 255 255
-16.616 -3.86047 -6.62731  255 255 255
-26.9643 -9.81878 6.71269  255 255 255
-26.2107 -9.61898 4.8739  255 255 255
-46.2305 -11.9115 14.4992  255 255 255
0.375332 -4.98665 -13.6351  255 255 255
-14.2429 31.9555 -82.4588  255 255 255
54.0095 -12.5624 -18.0127  255 255 255
7.93188 -6.36931 -17.7806  255 255 255
-31.9642 -14.5135 10.1295  255 255 255
33.3613 -13.1861 -16.1006  255 255 255
69.2923 -23.4496 -9.17375  255 255 255
-25.1494 -14.9684 3.36966  255 255 255
-3.69953 -10.6073 -12.5126  255 255 255
-3.65575 -10.6556 -12.3948  255 255 255
42.4808 -15.3908 -18.3496  255 255 255
-42.2007 -17.3566 12.1203  255 255 255
-4.31611 -11.3649 -12.3578  255 255 255
-55.9839 -14.547 7.716  255 255 255
54.2961 -18.8497 -17.0909  255 255 255
-44.2556 -17.3741 12.1194  255 255 255
-30.783 -18.8455 10.0552  255 255 255
-44.2775 -17.9191 12.0695  255 255 255
-0.198341 -12.3611 -14.2549  255 255 255
-2.76106 -12.8538 -13.8741  255 255 255
-12.9849 -13.5905 -9.21723  255 255 255
-39.7368 -26.4274 26.5002  255 255 255
-28.6382 -19.6421 7.83775  255 255 255
-28.8942 -19.3652 7.39261  255 255 255
-3.49615 -13.6855 -13.4492  255 255 255
-40.5553 -20.2399 10.9387  255 255 255
40.0255 -17.4538 -21.2631  255 255 255
5.21112 -15.2471 -15.3197  255 255 255
59.6291 -21.3776 -20.2805  255 255 255
-1.47549 -15.3282 -13.8764  255 255 255
-40.3343 -21.2271 11.2312  255 255 255
41.1347 -21.4247 -17.3435  255 255 255
-17.0775 -20.809 -0.324776  255 255 255
-33.0011 -23.7795 10.1298  255 255 255
19.6517 -18.6858 -17.9767  255 255 255
8.57954 -23.888 -7.02129  255 255 255
67.8593 -53.0198 31.426  255 255 255
1.45958 -27.5117 -6.05711  255 255 255
-27.1364 -28.4846 5.24139  255 255 255
-40.7517 -28.6512 9.30039  255 255 255
35.8099 -29.8507 -14.978  255 255 255
46.2475 -27.5191 -23.7669  255 255 255
-35.3805 -30.933 10.3474  255 255 255
37.8562 -31.1679 -14.8057  255 255 255
7.14886 -30.0193 -8.22997  255 255 255
-32.1593 -32.218 8.31464  255 255 255
0.981487 -31.6498 -4.64472  255 255 255
58.6516 -34.0499 -17.8908  255 255 255
-21.0548 -29.4326 -3.33263  255 255 255
-27.6186 -33.0786 4.22637  255 255 255
-7.9983 -33.8606 -5.22872  255 255 255
-40.0919 -47.9787 41.0789  255 255 255
-43.1535 -37.8476 15.5985  255 255 255
-44.0001 -34.5672 6.95363  255 255 255
-22.4116 -35.0166 0.382401  255 255 255
3.70303 -35.6113 -6.71316  255 255 255
-9.72286 -35.8693 -3.4672  255 255 255
10.5711 -35.6682 -10.6025  255 255 255
46.2113 -35.4291 -23.2147  255 255 255
25.7251 -36.1485 -16.5042  255 255 255
55.3607 -38.1074 -22.4697  255 255 255
44.9205 -38.7756 -19.584  255 255 255
37.7084 -37.7446 -20.1595  255 255 255
-22.7341 -39.1897 0.735686  255 255 255
52.8364 -43.1551 -15.0494  255 255 255
52.4296 -40.3827 -22.2826  255 255 255
52.5011 -40.6885 -21.5683  255 255 255
-33.604 -37.9943 -1.97755  255 255 255
-27.8608 -40.7037 3.0189  255 255 255
-43.9975 -40.8934 8.66639  255 255 255
39.5077 -42.576 -17.0301  255 255 255
22.9142 -41.7714 -14.27  255 255 255
-41.2602 -43.1582 9.40923  255 255 255
-40.934 -45.7177 9.16208  255 255 255
2.64687 -44.6496 -9.19547  255 255 255
36.183 -48.9891 -15.5817  255 255 255
30.7772 -50.6311 -19.2599  255 255 255
-45.1337 -55.1843 18.0741  255 255 255
-45.3841 -55.0627 17.6528  255 255 255
-26.0721 -52.2618 -0.677922  255 255 255
-1.12832 -52.7875 -8.37129  255 255 255
-25.9983 -52.9538 -0.235701  255 255 255
42.2814 -51.4287 -28.8795  255 255 255
-14.0707 -53.4519 -4.54656  255 255 255
19.0924 -53.8424 -17.3912  255 255 255
36.4816 -56.054 -16.9293  255 255 255
60.223 -58.6188 -15.8269  255 255 255
57.3745 -58.1458 -16.3572  255 255 255
-43.1448 -55.9593 6.58589  255 255 255
-43.2864 -56.4095 7.16473  255 255 255
-43.5119 -56.8965 6.87197  255 255 255
-21.3708 -55.3614 -7.81871  255 255 255
42.7467 -57.4019 -34.6639  255 255 255
30.7519 -63.3335 -14.4011  255 255 255
56.5376 -61.6712 -28.9191  255 255 255
37.9896 -60.0442 -36.4887  255 255 255
-32.5514 -66.1218 -5.09708  255 255 255
40.1709 -64.7056 -40.085  255 255 255
38.2054 -65.2336 -44.1916  255 255 255
-37.895 -69.958 -5.43796  255 255 255
40.8122 -65.8284 -47.2857  255 255 255
-50.9957 -74.0982 16.1142  255 255 255
-44.2605 -72.2378 1.66861  255 255 255
43.5876 -73.1561 -24.4671  255 255 255
41.5727 -67.2806 -47.6206  255 255 255
48.2401 -68.8907 -46.2845  255 255 255
-33.1231 -72.5698 -9.48877  255 255 255
-46.0872 -73.6879 -3.27451  255 255 255
52.299 -70.9288 -47.037  255 255 255
-45.0746 -73.9052 -3.88247  255 255 255
-54.1978 -71.3096 -14.4779  255 255 255
-45.2671 -74.4564 -5.17387  255 255 255
-33.821 -74.4855 -10.0948  255 255 255
-35.8815 -74.7292 -8.82607  255 255 255
-71.0886 -70.8099 -19.7653  255 255 255
-46.2602 -77.4028 0.422213  255 255 255
56.459 -73.9938 -50.5621  255 255 255
-49.5823 -78.02 -3.20436  255 255 255
32.7843 -79.893 -22.5514  255 255 255
31.8787 -72.8806 -55.2743  255 255 255
40.6909 -80.7247 -23.9151  255 255 255
42.412 -80.8993 -24.1183  255 255 255
-54.5881 -75.8149 -16.5304  255 255 255
-36.1836 -78.6085 -10.1883  255 255 255
59.4498 -76.9625 -55.0209  255 255 255
38.8272 -75.8246 -55.1362  255 255 255
54.5952 -80.7659 -42.4501  255 255 255
-53.4713 -82.6264 4.03565  255 255 255
57.4371 -78.0525 -56.257  255 255 255
-36.2664 -80.9934 -11.8212  255 255 255
60.1798 -78.0425 -57.4158  255 255 255
-37.1287 -81.5422 -11.9  255 255 255
-38.4216 -81.8025 -11.9559  255 255 255
-40.6248 -82.1128 -9.92945  255 255 255
46.4737 -78.6929 -57.4048  255 255 255
-47.3166 -83.9476 -8.76286  255 255 255
24.1743 -78.704 -60.1765  255 255 255
-51.5508 -86.6616 3.9431  255 255 255
-56.5134 -82.5993 -24.4285  255 255 255
-45.1472 -85.7856 -9.27332  255 255 255
-29.2254 -85.4856 -22.4399  255 255 255
31.3826 -91.5271 -25.3535  255 255 255
-46.7219 -91.6753 0.687114  255 255 255
26.3977 -92.2099 -20.4593  255 255 255
-37.2008 -92.6028 -2.24224  255 255 255
21.2086 -85.1921 -62.6551  255 255 255
39.5206 -86.6252 -61.2493  255 255 255
-33.4298 -92.1046 -5.82333  255 255 255
-29.4535 -89.7127 -22.7637  255 255 255
15.4444 -85.9252 -60.0497  255 255 255
26.9104 -92.6428 -23.9082  255 255 255
-53.0408 -91.2725 -11.5199  255 255 255
52.389 -88.4281 -63.7919  255 255 255
-44.7246 -93.9999 -0.338045  255 255 255
-33.2844 -93.8418 -7.27534  255 255 255
40.5332 -94.3931 -28.5013  255 255 255
-52.6156 -92.7864 -11.1511  255 255 255
17.4856 -88.5125 -61.8371  255 255 255
-42.592 -94.5695 -5.85384  255 255 255
47.5935 -90.5122 -65.0489  255 255 255
49.0339 -91.2704 -69.8406  255 255 255
-45.1969 -96.6408 -0.596069  255 255 255
20.9744 -90.5717 -63.4289  255 255 255
-47.0247 -92.2194 -31.5372  255 255 255
44.993 -91.3144 -67.1066  255 255 255
45.213 -91.5134 -65.6836  255 255 255
-49.1767 -96.4284 -4.73031  255 255 255
22.7589 -91.4768 -62.535  255 255 255
30.5603 -98.1363 -24.6391  255 255 255
-57.6606 -93.8308 -31.8282  255 255 255
57.0528 -93.6006 -78.4554  255 255 255
-41.5258 -96.8601 -19.3393  255 255 255
42.972 -95.45 -59.3818  255 255 255
12.1513 -94.1328 -58.2231  255 255 255
55.3579 -93.9621 -78.9428  255 255 255
36.1026 -94.6926 -67.2637  255 255 255
-45.1581 -101.005 0.383434  255 255 255
27.7766 -101.315 -21.992  255 255 255
22.0494 -95.5357 -65.8064  255 255 255
-45.6533 -102.074 -2.86636  255 255 255
-65.245 -98.0746 -33.5469  255 255 255
54.3521 -98.1453 -82.0985  255 255 255
23.1424 -98.6582 -66.5523  255 255 255
-59.2858 -101.75 -14.2454  255 255 255
-55.4083 -100.804 -37.9375  255 255 255
-54.6901 -100.437 -40.3135  255 255 255
-5.85946 -101.634 -42.6455  255 255 255
-24.8279 -105.806 -9.71851  255 255 255
-57.8886 -104.646 -17.1563  255 255 255
-37.2497 -105.031 -20.6824  255 255 255
37.0411 -111.09 -34.7945  255 255 255
30.8145 -110.913 -35.1632  255 255 255
-34.3406 -112.797 -7.23881  255 255 255
-35.8734 -113.42 -7.6853  255 255 255
27.107 -113.202 -35.6612  255 255 255
-41.8128 -114.118 -7.56254  255 255 255
-41.1572 -114.112 -9.6415  255 255 255
24.3007 -115.323 -21.7638  255 255 255
43.4854 -116.878 -26.4963  255 255 255
-36.2928 -119.183 -20.8524  255 255 255
-35.8948 -119.465 -22.2545  255 255 255
27.1454 -120.992 -26.8824  255 255 255
35.3952 -123.893 -26.819  255 255 255
-31.4458 -127.654 -11.9224  255 255 255
4.46624 98.701 7.0317  255 255 255
3.28957 93.5241 6.72187  255 255 255
7.52605 85.2297 4.50175  255 255 255
4.84962 70.9476 13.6425  255 255 255
-26.6578 66.3411 25.0228  255 255 255
-28.0705 69.998 10.4252  255 255 255
61.1026 46.3275 7.76608  255 255 255
81.0807 15.246 35.3947  255 255 255
-26.4931 66.6485 9.75242  255 255 255
5.13682 55.0804 7.51287  255 255 255
24.0097 55.6001 -0.590569  255 255 255
44.4529 53.955 -8.28932  255 255 255
-25.3044 47.0771 21.7989  255 255 255
-25.4128 47.7474 22.0711  255 255 255
54.312 47.117 -5.42053  255 255 255
-11.43 45.4375 14.7622  255 255 255
23.9637 51.9039 -9.1836  255 255 255
-14.1707 49.1252 6.37333  255 255 255
-17.9932 43.6122 7.76951  255 255 255
21.2985 43.0795 -8.57342  255 255 255
-31.1563 9.96162 53.6582  255 255 255
39.0945 34.0355 -7.93042  255 255 255
-30.8347 3.09778 58.0812  255 255 255
-3.46796 31.4532 6.50093  255 255 255
39.7557 32.9244 -10.7228  255 255 255
52.1933 30.3761 -13.89  255 255 255
-34.2108 14.2308 34.0749  255 255 255
-6.31744 34.4366 -5.64141  255 255 255
-23.4842 21.0101 15.1285  255 255 255
-18.2699 -33.2114 88.6842  255 255 255
5.03384 23.8224 -5.96687  255 255 255
2.86808 28.2555 -12.0931  255 255 255
68.966 0.160683 8.95278  255 255 255
67.2642 -0.684384 8.51443  255 255 255
-3.26296 19.824 -0.762431  255 255 255
73.3118 -1.89532 3.51284  255 255 255
-43.1328 14.058 12.3327  255 255 255
65.4627 -5.7583 8.42051  255 255 255
-77.2153 26.0438 -0.178349  255 255 255
58.9198 3.44473 -11.3976  255 255 255
-22.7338 6.93977 3.49906  255 255 255
-26.275 -0.693535 10.1935  255 255 255
8.04977 4.87455 -11.258  255 255 255
40.8021 -1.25143 -14.0827  255 255 255
49.4422 -0.00810161 -20.021  255 255 255
-35.2478 -25.6995 54.7517  255 255 255
-8.01392 0.411246 -7.18387  255 255 255
40.8195 -3.05052 -16.6067  255 255 255
33.5011 -2.07461 -16.6313  255 255 255
-1.41362 0.444331 -12.14  255 255 255
10.1772 -2.9855 -16.527  255 255 255
-43.8176 -9.83765 12.0472  255 255 255
6.61453 -6.28905 -12.0636  255 255 255
-48.8434 -10.6901 13.4309  255 255 255
-41.6237 -12.7984 15.1465  255 255 255
-42.0399 -12.3679 14.5456  255 255 255
-55.0487 -9.78499 10.4095  255 255 255
15.7473 -5.20416 -21.2533  255 255 255
-5.58898 -6.84703 -11.669  255 255 255
-19.8616 -8.23673 -6.67665  255 255 255
-3.53346 -9.17627 -12.1792  255 255 255
-31.2199 -16.7158 9.77664  255 255 255
1.26299 -10.957 -15.0449  255 255 255
8.61444 -9.40831 -21.4747  255 255 255
6.6291 -14.8456 -12.7433  255 255 255
0.784259 -13.7135 -14.1102  255 255 255
5.58756 -15.0179 -14.0745  255 255 255
-49.9282 -19.1104 7.28282  255 255 255
-41.481 -22.8868 11.2923  255 255 255
-48.1084 -21.7936 10.3783  255 255 255
-19.7726 -25.1104 -0.924554  255 255 255
8.70132 -35.3445 -8.62573  255 255 255
-8.2267 -36.629 -5.92184  255 255 255
44.1887 -37.8338 -21.3416  255 255 255
17.4187 -38.6241 -13.8507  255 255 255
-27.9784 -41.3169 -1.92266  255 255 255
-25.6828 -45.0427 1.92757  255 255 255
-37.2936 -46.9294 9.08393  255 255 255
-14.9522 -49.1632 -2.72  255 255 255
48.3143 -51.5384 -25.59  255 255 255
-45.6609 -54.8066 15.5596  255 255 255
-0.912764 -52.153 -10.6659  255 255 255
59.1678 -59.6365 -20.2242  255 255 255
36.5331 -59.7762 -18.6585  255 255 255
-36.2805 -60.5692 0.483813  255 255 255
32.0776 -62.5709 -19.1563  255 255 255
-48.5652 -65.7961 16.5574  255 255 255
28.785 -68.0362 -20.0275  255 255 255
-50.2887 -72.6136 15.9  255 255 255
-51.9275 -76.2986 13.2005  255 255 255
-29.1794 -78.8697 -2.38786  255 255 255
52.6902 -73.6987 -50.366  255 255 255
52.4833 -73.9094 -50.2399  255 255 255
-72.4646 -73.652 -21.6624  255 255 255
59.9041 -75.082 -54.3455  255 255 255
31.5952 -73.7575 -54.8588  255 255 255
31.755 -73.9341 -54.018  255 255 255
53.8777 -81.7157 -27.932  255 255 255
-31.1213 -81.7053 -1.24171  255 255 255
-34.8141 -79.5674 -12.7995  255 255 255
59.6667 -80.4059 -43.6532  255 255 255
59.0249 -77.7282 -55.812  255 255 255
-50.2593 -81.7375 -6.16746  255 255 255
57.8044 -78.777 -56.5849  255 255 255
-34.5631 -84.7287 -1.52093  255 255 255
31.5987 -78.3347 -59.2587  255 255 255
24.5677 -78.4463 -59.5139  255 255 255
-48.4953 -83.8445 -7.9027  255 255 255
27.0686 -79.2693 -59.3845  255 255 255
36.3979 -80.3177 -58.2015  255 255 255
-36.6494 -87.4393 -0.475205  255 255 255
-36.6471 -87.44 -0.466199  255 255 255
-35.12 -88.4658 1.16779  255 255 255
41.2975 -82.8219 -61.7812  255 255 255
-55.6148 -87.9279 -2.29036  255 255 255
-55.6429 -88.5638 1.41051  255 255 255
45.8209 -91.0602 -26.2109  255 255 255
45.8684 -91.1011 -25.9367  255 255 255
46.7064 -85.9128 -62.2913  255 255 255
26.4237 -92.1087 -23.0777  255 255 255
33.1015 -91.6733 -29.0845  255 255 255
28.1568 -93.6897 -24.1721  255 255 255
-23.6717 -94.0728 -7.92399  255 255 255
55.5597 -90.1198 -64.8514  255 255 255
42.814 -90.5069 -65.8787  255 255 255
35.9533 -91.4717 -64.9504  255 255 255
-52.4349 -92.7626 -31.5261  255 255 255
8.38672 -100.996 -14.4139  255 255 255
8.08055 -99.8087 -14.4173  255 255 255
54.604 -93.4229 -76.9031  255 255 255
-54.5847 -96.7817 -13.9775  255 255 255
60.6513 -93.4357 -82.0092  255 255 255
8.27165 -100.737 -16.2279  255 255 255
20.66 -93.7085 -65.1814  255 255 255
20.9363 -100.625 -23.0263  255 255 255
59.865 -95.5908 -82.8781  255 255 255
50.0125 -104.015 -27.8403  255 255 255
-58.9926 -102.25 -12.2851  255 255 255
28.8891 -104.226 -25.4557  255 255 255
3.6499 -104.166 -28.6532  255 255 255
32.642 -106.061 -23.2916  255 255 255
26.4481 -101.739 -66.8417  255 255 255
-33.9569 -106.608 -7.12605  255 255 255
-2.60894 -104.102 -41.6101  255 255 255
-28.4894 -102.492 -57.3711  255 255 255
-53.5093 -104.823 -42.3229  255 255 255
35.9321 -110.503 -29.966  255 255 255
-6.81535 -111.633 -30.6024  255 255 255
29.18 -113.585 -28.2562  255 255 255
29.3047 -115.123 -26.6635  255 255 255
-36.4384 -118.088 -7.87205  255 255 255
-36.1403 -118.136 -7.17363  255 255 255
-37.3047 -118.082 -16.4365  255 255 255
15.8729 -118.89 -20.6518  255 255 255
15.8177 -118.88 -20.8522  255 255 255
12.5 -119.047 -24.126  255 255 255
-34.3541 -119.479 -7.89391  255 255 255
36.249 -121.372 -26.5741  255 255 255
-30.888 -121.753 -9.61899  255 255 255
11.4797 -122.131 -20.2611  255 255 255
-34.1441 -122.705 -9.26756  255 255 255
-37.1157 -123.182 -8.20706  255 255 255
-34.6535 -123.445 -9.72287  255 255 255
-34.4071 -124.207 -9.6308  255 255 255
26.8702 -125.043 -23.4356  255 255 255
-26.0247 -131.203 -13.4036  255 255 255
18.6954 -134.367 -23.2296  255 255 255
-16.2876 91.5776 -0.772848  255 255 255
42.2389 64.0598 -3.9053  255 255 255
76.24 17.7379 37.1282  255 255 255
54.6366 47.9944 -3.35442  255 255 255
73.7565 11.0041 32.954  255 255 255
85.0481 -10.7022 54.6428  255 255 255
-13.4366 53.4392 5.69592  255 255 255
-16.5386 43.0759 14.4131  255 255 255
37.568 42.5941 -8.0422  255 255 255
-43.5173 33.5607 11.1556  255 255 255
-41.9283 31.7143 13.4232  255 255 255
3.77797 32.6783 -8.95134  255 255 255
52.631 24.6111 -13.6689  255 255 255
68.4311 4.09585 9.96771  255 255 255
70.8296 1.98875 8.04236  255 255 255
70.8809 2.43599 7.71907  255 255 255
72.1653 2.20334 6.89801  255 255 255
62.3717 1.95404 9.06173  255 255 255
2.64157 21.8899 -5.75927  255 255 255
-26.2049 14.0927 14.7324  255 255 255
-34.2605 -1.98429 41.8029  255 255 255
7.3187 21.9043 -11.0905  255 255 255
61.1021 -3.22709 5.13485  255 255 255
41.0001 -3.45249 -16.0424  255 255 255
60.5403 -9.91095 -10.9555  255 255 255
33.3752 -7.11818 -15.3008  255 255 255
-0.99279 -4.74401 -13.2707  255 255 255
55.3399 -12.7443 -16.5579  255 255 255
-53.8761 -9.65858 10.0625  255 255 255
-4.75161 -11.3677 -7.85273  255 255 255
-1.24166 -9.22385 -14.0706  255 255 255
1.44015 -9.9249 -17.8804  255 255 255
13.1814 -11.173 -23.0681  255 255 255
13.1944 -11.1988 -23.023  255 255 255
40.0876 -22.0205 -16.599  255 255 255
19.6378 -22.2702 -16.2929  255 255 255
-27.1075 -25.8755 4.69198  255 255 255
-27.7684 -26.2599 5.36489  255 255 255
36.1568 -34.0301 -16.3143  255 255 255
-40.975 -49.4138 39.5459  255 255 255
42.1205 -38.8543 -21.0112  255 255 255
40.7779 -47.3349 -16.614  255 255 255
48.3761 -49.7632 -22.799  255 255 255
42.607 -50.1911 -25.0727  255 255 255
48.8322 -50.6727 -30.4593  255 255 255
54.0633 -60.945 -26.9275  255 255 255
-46.3597 -70.557 4.08121  255 255 255
56.0277 -70.8559 -28.1524  255 255 255
46.7506 -75.2987 -28.922  255 255 255
55.4834 -73.5252 -51.1603  255 255 255
-36.5691 -79.6204 0.10566  255 255 255
-53.0599 -79.8219 4.53076  255 255 255
56.3318 -77.9196 -55.5705  255 255 255
36.6592 -77.7195 -55.5615  255 255 255
-53.9627 -81.4844 -22.3063  255 255 255
-43.6237 -82.3722 -23.4373  255 255 255
54.2678 -88.6301 -31.367  255 255 255
41.2575 -82.4307 -60.9358  255 255 255
54.7872 -83.3524 -66.8395  255 255 255
-54.2142 -87.7575 -5.95336  255 255 255
-30.2116 -96.3234 -8.10461  255 255 255
56.4217 -93.0756 -66.5607  255 255 255
9.11341 -100.25 -14.3799  255 255 255
57.9809 -94.1432 -82.0629  255 255 255
8.64075 -101.259 -19.6304  255 255 255
33.0157 -100.54 -26.7065  255 255 255
8.08107 -101.858 -21.0909  255 255 255
-38.9601 -103.192 -12.1143  255 255 255
5.4417 -104.546 -28.5365  255 255 255
-30.7823 -106.807 -6.79207  255 255 255
-35.745 -109.087 -14.6862  255 255 255
-48.2457 -113.693 6.41436  255 255 255
-31.5243 -115.183 -11.9408  255 255 255
-31.0917 -116.043 -10.129  255 255 255
-40.2963 -117.178 -6.4576  255 255 255
36.2531 -117.566 -28.5011  255 255 255
12.7261 -119.166 -25.0439  255 255 255
11.7054 -119.804 -19.6471  255 255 255
-32.55 -119.629 -11.3899  255 255 255
-41.9923 -125.055 -7.38602  255 255 255
26.866 -126.612 -24.115  255 255 255
26.4809 -127.38 -23.6327  255 255 255
-35.662 -129.055 -10.3034  255 255 255
24.2698 71.0018 -18.4572  255 255 255
-17.8613 67.8084 -0.583286  255 255 255
-14.1863 51.0244 16.1406  255 255 255
36.4086 54.4304 -15.667  255 255 255
33.5613 48.6659 -8.4252  255 255 255
62.5782 31.1008 0.975449  255 255 255
-32.3635 -4.81033 54.1109  255 255 255
45.7094 10.9725 -16.0556  255 255 255
-62.8887 12.4022 9.01365  255 255 255
-77.732 13.4946 -2.03035  255 255 255
50.3444 1.41303 -18.7348  255 255 255
14.1964 -0.544905 -18.4694  255 255 255
-29.962 -11.3941 10.9728  255 255 255
-2.09154 -15.1532 -13.8367  255 255 255
36.3387 -25.5391 -16.7026  255 255 255
0.946928 -24.4479 -10.1512  255 255 255
20.9674 -37.28 -18.9084  255 255 255
43.5514 -40.2031 -21.5055  255 255 255
49.3621 -43.7603 -24.6358  255 255 255
-37.6068 -46.0042 8.43035  255 255 255
48.2601 -45.3788 -24.3963  255 255 255
9.2212 -46.3623 -10.9118  255 255 255
-44.326 -52.4041 6.0301  255 255 255
49.8264 -56.5533 -29.681  255 255 255
59.48 -74.2953 -51.6654  255 255 255
59.2456 -78.2906 -57.3026  255 255 255
2.92472 -96.0917 -28.3801  255 255 255
20.9861 -114.514 -24.6053  255 255 255
-27.8031 -116.442 -9.98996  255 255 255
14.8746 -119.825 -19.8584  255 255 255
12.8591 -120.353 -18.7476  255 255 255
-33.4318 -121.424 0.657713  255 255 255
-30.4999 -121.652 -1.32635  255 255 255
-37.414 -121.971 -7.56151  255 255 255
-37.6444 -123.281 -8.26968  255 255 255
-38.248 -124.556 -8.95838  255 255 255
27.4821 -128.484 -24.9719  255 255 255
-33.6958 -129.136 -10.1121  255 255 255
31.3419 -130.693 -26.7891  255 255 255
26.742 110.068 -22.5951  255 255 255
13.9866 69.3946 9.87083  255 255 255
-39.2898 58.0003 9.27731  255 255 255
-30.3145 2.17683 65.1023  255 255 255
-4.32765 -5.62469 -12.3921  255 255 255
11.3116 -9.70029 -21.2248  255 255 255
-2.3 -14.2573 -13.374  255 255 255
48.8675 -38.4848 -19.9827  255 255 255
45.8424 -41.9056 -23.2647  255 255 255
57.0025 -61.9915 -27.4211  255 255 255
53.8626 -95.4345 -33.344  255 255 255
8.50418 -101.312 -17.5544  255 255 255
29.1591 -102.407 -21.0311  255 255 255
-52.0453 -108.136 13.9082  255 255 255
14.9565 -117.281 -19.8966  255 255 255
40.8995 -117.765 -27.2847  255 255 255
-35.7148 -119.341 -7.93978  255 255 255
13.7935 -121.95 -20.2275  255 255 255
27.4406 -127.257 -23.6832  255 255 255
-33.8433 49.5451 23.5466  255 255 255
41.7954 58.9956 -22.5942  255 255 255
61.172 20.8587 2.00043  255 255 255
-31.181 -1.2302 60.5328  255 255 255
47.5898 27.6475 -14.4663  255 255 255
71.1031 -0.266266 6.81229  255 255 255
45.7972 -3.29954 -21.0217  255 255 255
2.42761 -2.63165 -13.8055  255 255 255
-36.6115 -28.108 48.3883  255 255 255
49.9298 -17.3996 -21.0375  255 255 255
-30.8853 -42.5463 3.59652  255 255 255
-41.8714 -100.422 8.08522  255 255 255
-42.4239 -100.292 7.18688  255 255 255
41.6663 -99.4574 -70.2976  255 255 255
-39.1276 -108.177 7.30388  255 255 255
20.842 -118.129 -21.4604  255 255 255
-26.6176 -126.168 -3.55894  255 255 255
-39.238 -126.951 -9.60093  255 255 255
-40.325 -12.0986 21.0787  255 255 255
46.1226 -22.443 -26.3207  255 255 255
-39.866 -44.1488 10.5883  255 255 255
37.401 -84.3348 -56.9443  255 255 255
46.0364 -94.12 -38.2539  255 255 255
-33.9136 -124.87 -10.8657  255 255 255
-27.1616 -127.65 -12.0901  255 255 255
3.66823 83.3874 5.4812  255 255 255
38.7313 -121.996 -25.5158  255 255 255
-24.5553 -131.55 -12.7361  255 255 255
65.771 8.65621 10.4334  255 255 255
-34.2418 -121.182 -3.7711  255 255 255
33.8811 -116.878 -38.2742  255 255 255
-50.4517 -77.3833 2.44208  255 255 255
-33.7109 -120.469 -8.65888  255 255 255
-31.8064 -124.468 -5.30628  255 255 255
-32.3332 -124.443 -6.30906  255 255 255
-9.05149 -27.9847 -8.63256  255 255 255
-12.4869 135.927 -3.05525  255 255 255
-12.5182 126.797 5.61928  255 255 255
-33.6166 132.208 9.73028  255 255 255
-10.3097 129.156 3.18212  255 255 255
-12.8045 133.637 -2.94232  255 255 255
-25.4045 125.611 9.05458  255 255 255
-31.1327 122.31 10.5713  255 255 255
83.9257 60.4546 70.3292  255 255 255
11.8557 98.121 2.95591  255 255 255
-33.2427 102.312 5.86114  255 255 255
26.9511 83.3579 6.48235  255 255 255
14.5656 82.1213 2.28425  255 255 255
-193.423 206.426 -166.408  255 255 255
-31.8957 86.1103 6.01575  255 255 255
-24.7268 74.8444 25.9153  255 255 255
-31.7097 81.8318 14.9218  255 255 255
-31.7983 81.9536 14.7564  255 255 255
18.0815 78.2734 -2.2966  255 255 255
59.3724 72.4176 -5.61238  255 255 255
39.3419 83.2356 -27.1226  255 255 255
65.2803 69.8629 -11.846  255 255 255
-13.5319 57.8623 42.0476  255 255 255
-29.5657 74.131 12.2161  255 255 255
-8.79211 58.0335 34.9727  255 255 255
-9.14555 66.0444 12.5487  255 255 255
14.1071 117.752 -122.903  255 255 255
59.8895 58.5442 -9.70444  255 255 255
-22.1431 58.3166 17.6792  255 255 255
83.5563 17.6267 63.4634  255 255 255
-83.7925 20.8557 124.327  255 255 255
-65.9137 19.9244 114.787  255 255 255
-28.4214 56.3536 10.9231  255 255 255
-17.6607 52.5684 13.427  255 255 255
8.80126 55.6908 -7.92706  255 255 255
-18.254 51.0468 7.91559  255 255 255
-6.49744 49.5715 0.998665  255 255 255
-32.6994 45.9774 15.3024  255 255 255
-31.5894 37.6421 35.3903  255 255 255
88.7446 8.47963 56.1063  255 255 255
-10.9676 46.338 1.7396  255 255 255
-86.4161 9.58935 124.138  255 255 255
-89.4326 9.59201 125.841  255 255 255
-37.2965 35.5888 20.7655  255 255 255
-25.6091 35.29 15.7766  255 255 255
-42.3177 2.96161 106.711  255 255 255
-18.166 35.32 4.97771  255 255 255
11.8613 34.8213 -6.90459  255 255 255
-42.0904 2.21416 103.377  255 255 255
30.254 33.2557 -14.4778  255 255 255
-17.5741 34.2922 2.21899  255 255 255
34.8884 33.9494 -20.2681  255 255 255
8.21764 33.1484 -9.42486  255 255 255
-47.4928 -0.736395 105.211  255 255 255
-13.868 30.7446 2.8747  255 255 255
12.4122 30.1198 -9.6396  255 255 255
66.833 28.8318 -22.8317  255 255 255
36.9844 34.6436 -36.7582  255 255 255
-38.739 -3.21063 101.988  255 255 255
-88.1925 -2.82485 123.156  255 255 255
-85.5881 -3.67078 121.689  255 255 255
14.7054 27.7198 -12.449  255 255 255
32.5601 24.659 -12.228  255 255 255
15.4056 27.0157 -12.3684  255 255 255
-37.8769 23.2625 15.5854  255 255 255
-34.3399 24.4915 8.22398  255 255 255
16.8395 22.7289 -15.4063  255 255 255
-42.4578 12.6799 21.2935  255 255 255
64.8039 15.0359 -26.8918  255 255 255
-67.5939 -14.8599 111.736  255 255 255
-67.5944 -14.8601 111.734  255 255 255
-64.9477 -15.4121 110.676  255 255 255
23.417 14.1132 -20.4323  255 255 255
-11.8768 11.1581 3.71714  255 255 255
-9.24712 9.14144 -2.77772  255 255 255
27.2826 7.00144 -14.2616  255 255 255
44.0459 4.89964 -14.6146  255 255 255
-19.1249 5.66405 2.35713  255 255 255
3.91377 6.46728 -11.5119  255 255 255
-69.2344 -23.8606 111.932  255 255 255
-68.3127 -26.8147 110.415  255 255 255
-23.0803 0.301733 -1.02118  255 255 255
-16.3545 -2.7233 -1.99136  255 255 255
-42.6595 -6.76887 17.8209  255 255 255
-20.6685 -5.44624 0.215787  255 255 255
5.15183 -5.99666 -14.0817  255 255 255
-29.1187 -7.08586 -19.0519  255 255 255
-6.37476 -13.9474 -7.80229  255 255 255
22.8134 -15.2803 -21.022  255 255 255
86.2699 -41.4596 53.4202  255 255 255
-22.7319 -17.6281 2.6416  255 255 255
18.7651 -17.4524 -18.3762  255 255 255
-42.2365 -19.7393 9.18012  255 255 255
5.30623 -19.217 -12.4495  255 255 255
-31.722 -21.9633 4.01076  255 255 255
14.6253 -23.5681 -14.5409  255 255 255
-35.4566 -28.1183 11.7755  255 255 255
9.52536 -29.3688 -8.93722  255 255 255
30.3067 -28.6689 -21.6901  255 255 255
46.9976 -29.3458 -28.3627  255 255 255
-53.8529 -33.9204 29.5482  255 255 255
-11.7327 -32.0054 -4.15378  255 255 255
1.37227 -40.6848 -6.5129  255 255 255
52.7044 -40.301 -29.2804  255 255 255
24.644 -41.7577 -18.8862  255 255 255
55.8461 -42.8216 -29.4894  255 255 255
16.1128 -45.0706 -16.1168  255 255 255
-3.46302 -45.5713 -9.57598  255 255 255
-38.1724 -47.467 11.3933  255 255 255
53.1414 -47.2692 -29.1825  255 255 255
21.2075 -49.9425 -21.5656  255 255 255
-1.27206 -83.8921 158.464  255 255 255
30.1221 -53.7749 -21.8147  255 255 255
-2.60055 -53.9988 -22.6478  255 255 255
76.5912 -78.2696 66.2343  255 255 255
55.9117 -60.4767 -31.9435  255 255 255
-34.2851 -66.3234 8.37133  255 255 255
21.7942 -74.959 -21.7905  255 255 255
37.2239 -78.7686 -18.2004  255 255 255
32.0066 -85.7879 -17.4763  255 255 255
-8.09786 -107.743 155.372  255 255 255
30.2401 -89.897 -17.5459  255 255 255
94.4613 -92.0941 -42.9427  255 255 255
-40.3218 -101.849 4.14608  255 255 255
-27.101 -102.646 -5.74419  255 255 255
27.8816 -102.354 -22.9896  255 255 255
-43.3971 -110.917 10.8874  255 255 255
90.6918 -118.965 -30.1906  255 255 255
-32.7935 131.314 9.72922  255 255 255
27.4645 12.1855 174.945  255 255 255
9.8072 83.4523 3.25301  255 255 255
-42.0201 90.8237 9.15982  255 255 255
-32.0084 67.6475 17.7717  255 255 255
-7.24342 65.2568 7.78221  255 255 255
-18.6732 67.8267 6.11327  255 255 255
11.1544 64.1415 -2.79269  255 255 255
20.9077 62.8018 -4.14633  255 255 255
54.6433 58.9849 -6.24149  255 255 255
122.507 20.434 48.8616  255 255 255
-10.8752 60.5007 11.5517  255 255 255
35.9669 59.32 -13.9284  255 255 255
-30.4201 58.9667 14.8633  255 255 255
21.3955 49.8162 -3.25021  255 255 255
-15.9883 14.8878 94.8555  255 255 255
11.0021 29.526 30.8349  255 255 255
81.8109 0.885828 63.3123  255 255 255
54.4228 37.4845 -14.1992  255 255 255
9.32196 34.9544 -3.87024  255 255 255
84.3789 -4.5987 62.4641  255 255 255
31.6332 31.5946 -18.122  255 255 255
63.4048 26.3751 -20.7716  255 255 255
-45.2805 11.8176 45.9097  255 255 255
-39.088 8.25829 15.3314  255 255 255
45.9797 4.30723 -17.2483  255 255 255
-16.6375 -5.7026 -1.77555  255 255 255
39.9527 -16.2626 -27.666  255 255 255
1.09851 -20.8351 -10.1682  255 255 255
-19.0982 -35.9526 -3.31911  255 255 255
46.6029 -41.5518 -27.2777  255 255 255
57.0862 -44.7843 -30.0277  255 255 255
76.4427 -67.0221 63.6718  255 255 255
-18.4638 -48.3945 -3.75185  255 255 255
30.0011 -52.6733 -20.8857  255 255 255
32.5192 -83.1659 -17.5879  255 255 255
-32.6135 -87.1053 -0.266095  255 255 255
-35.2075 -122.104 84.8099  255 255 255
-39.7605 -125.715 -0.393676  255 255 255
10.1504 100.313 1.77501  255 255 255
-193.494 203.382 -124.657  255 255 255
0.435283 84.3627 5.2797  255 255 255
-4.8268 71.9094 12.6745  255 255 255
81.4889 28.9697 67.7339  255 255 255
-31.8127 67.2025 24.272  255 255 255
16.3571 70.3957 -2.82084  255 255 255
16.395 69.2389 -3.37537  255 255 255
19.1539 73.5797 -17.5621  255 255 255
-30.3781 63.7254 24.4117  255 255 255
-16.6399 67.4876 6.49611  255 255 255
-29.7199 63.5464 9.29879  255 255 255
27.4629 60.2081 -14.4931  255 255 255
-9.66122 57.9252 6.52471  255 255 255
-17.4256 52.9768 13.2873  255 255 255
51.9449 38.7458 -12.0523  255 255 255
50.4315 33.1193 -12.5495  255 255 255
35.7594 29.8487 -20.6648  255 255 255
-91.8907 -4.49791 123.832  255 255 255
-23.2146 23.8437 8.26534  255 255 255
-27.6076 22.9365 9.0252  255 255 255
-22.3075 7.74689 6.31887  255 255 255
-83.7817 -20.8692 118.642  255 255 255
15.1035 0.588085 -16.8437  255 255 255
11.3033 -1.63562 -15.2529  255 255 255
10.1002 -2.02144 -13.7664  255 255 255
44.6849 -8.34315 -18.7457  255 255 255
-8.74523 -6.43606 -4.84548  255 255 255
-2.7268 22.4436 -144.771  255 255 255
-3.62044 -12.6586 -9.04422  255 255 255
14.3233 -13.9027 -17.3682  255 255 255
19.3076 -13.7365 -19.6843  255 255 255
3.19779 -14.2022 -12.5689  255 255 255
11.1939 -15.9371 -15.8171  255 255 255
11.0406 -15.8279 -16.145  255 255 255
11.9902 -15.326 -18.3318  255 255 255
3.31845 -16.1289 -12.5117  255 255 255
5.11349 -16.134 -13.1953  255 255 255
-1.96307 -16.3329 -10.2035  255 255 255
15.9921 -17.5865 -18.9381  255 255 255
-3.42104 -18.3631 -8.94606  255 255 255
-53.856 -30.0451 28.1274  255 255 255
-55.0855 -35.2722 28.6702  255 255 255
-20.7757 -42.7773 -3.68562  255 255 255
1.88334 -45.3214 -13.0072  255 255 255
-28.2925 -49.9627 5.63917  255 255 255
28.5625 -83.0674 -16.6263  255 255 255
36.2912 -83.4615 -17.8428  255 255 255
-47.156 -92.6248 -0.0307528  255 255 255
35.7348 -97.0065 -18.7843  255 255 255
-39.1889 -126.922 2.25049  255 255 255
-8.08927 133.527 -3.75974  255 255 255
11.3654 86.9562 4.07769  255 255 255
42.497 71.1218 -8.17108  255 255 255
-7.88572 70.3005 6.64435  255 255 255
5.33261 56.9999 24.5407  255 255 255
-20.502 45.4826 12.891  255 255 255
-27.1966 12.4611 98.6737  255 255 255
-39.5488 18.5881 21.5993  255 255 255
43.1787 -14.3154 -20.5828  255 255 255
-76.9114 -33.2094 95.9662  255 255 255
-49.416 -39.8633 13.875  255 255 255
54.9671 -78.8668 -31.5391  255 255 255
88.5864 -83.8148 -44.3234  255 255 255
46.2116 -110.136 -9.28178  255 255 255
26.8895 85.9695 29.8147  255 255 255
-35.4008 80.5714 33.5863  255 255 255
23.739 120.101 -112.67  255 255 255
2.04985 69.9084 -0.954305  255 255 255
-43.3736 43.4336 32.6939  255 255 255
62.7828 40.3175 -16.1764  255 255 255
82.1708 -0.181825 64.5797  255 255 255
-31.2803 -96.3777 2.11078  255 255 255
-36.9578 -123.356 -0.0503767  255 255 255
-25.8712 -122.922 -9.6562  255 255 255
3.05706 96.5159 19.3187  255 255 255
-4.99806 80.7966 3.42174  255 255 255
54.7035 -55.063 -32.2163  255 255 255
-28.1931 -104.812 88.3865  255 255 255
-27.2792 -122.103 -8.28337  255 255 255
12.5637 95.1641 0.164488  255 255 255
-56.197 26.8804 95.0925  255 255 255
102.095 -46.828 45.7252  255 255 255
102.231 -46.6946 46.0759  255 255 255
105.548 -48.2284 44.5982  255 255 255
98.7091 -48.7273 46.5904  255 255 255
-47.7979 13.4705 96.0556  255 255 255
-47.5154 -30.7137 13.7392  255 255 255
-47.6403 -79.216 5.9609  255 255 255
18.9004 96.5933 23.2119  255 255 255
-47.3821 8.15291 106.386  255 255 255
3.95886 -25.7072 -12.6001  255 255 255
-51.9578 -74.2253 7.83169  255 255 255
96.2559 -47.1502 46.3019  255 255 255
14.6573 -62.5094 -22.1037  255 255 255
-57.1375 69.1525 109.902  255 255 255
-57.1545 69.1734 109.872  255 255 255
-44.9283 58.1449 100.582  255 255 255
-52.3318 57.1649 104.207  255 255 255
-59.329 54.9262 107.222  255 255 255
-54.9681 53.926 104.719  255 255 255
-54.2561 53.7915 104.484  255 255 255
-54.1434 53.9837 104.466  255 255 255
-32.8768 45.5078 103.225  255 255 255
-53.4306 36.1351 104.513  255 255 255
-32.8741 33.7975 101.74  255 255 255
-55.222 31.1247 104.668  255 255 255
-57.0856 30.6132 105.47  255 255 255
-40.4373 30.4209 104.846  255 255 255
-33.3022 22.1005 102.366  255 255 255
-74.7858 19.7521 119.906  255 255 255
-74.7893 19.7505 119.89  255 255 255
-16.1496 14.9175 94.7256  255 255 255
-79.2599 8.59373 118.847  255 255 255
-113.303 2.27 102.695  255 255 255
-35.1979 7.84802 101.474  255 255 255
-57.5262 7.74607 110.875  255 255 255
-95.733 8.74873 128.268  255 255 255
-47.497 7.10867 106.578  255 255 255
-28.508 6.69495 98.9364  255 255 255
-95.1362 4.89702 129.459  255 255 255
-50.4646 1.28605 109.323  255 255 255
-79.1087 0.78733 121.149  255 255 255
-83.3103 -0.0517196 124.021  255 255 255
-74.2551 -0.666858 119.127  255 255 255
-60.1602 -1.84891 111.769  255 255 255
-98.1393 -6.82805 132.217  255 255 255
-64.7062 -9.71172 113.897  255 255 255
-85.9475 -9.12384 124.18  255 255 255
-58.7414 -11.3001 111.08  255 255 255
-81.3903 -10.9397 123.325  255 255 255
-73.2 -12.5064 118.975  255 255 255
-78.6388 -17.2089 122.276  255 255 255
-82.0088 -17.3001 123.968  255 255 255
-79.1515 -19.4705 122.134  255 255 255
-74.4808 -23.0934 120.134  255 255 255
-41.1337 -26.606 101.173  255 255 255
-116.899 57.0639 114.778  255 255 255
-26.7267 33.0688 99.1369  255 255 255
-30.1597 29.9553 100.176  255 255 255
-43.3627 13.9075 105.793  255 255 255
-42.9201 11.3246 105.533  255 255 255
-45.9688 10.7563 106.71  255 255 255
-97.3349 9.61538 128.844  255 255 255
-75.7484 5.47018 119.481  255 255 255
-92.9254 2.39042 128.721  255 255 255
-72.0282 0.943252 117.814  255 255 255
-82.3741 -1.66989 123.072  255 255 255
-83.508 -4.88312 124.081  255 255 255
-70.389 -7.61544 117.328  255 255 255
-87.1518 -10.3317 122.701  255 255 255
-23.9403 -13.7283 95.9837  255 255 255
-80.5564 -12.8903 122.948  255 255 255
-81.9361 -16.4193 124.21  255 255 255
-48.1862 -18.5869 107.358  255 255 255
-31.8673 47.2129 103.227  255 255 255
-97.2696 29.0771 141.17  255 255 255
-97.0216 29.133 141.886  255 255 255
-53.7368 22.1274 111.488  255 255 255
-76.6488 20.063 121.715  255 255 255
-119.263 10.5945 94.1378  255 255 255
-119.393 10.8567 94.0866  255 255 255
-37.0375 9.9357 102.851  255 255 255
-92.2842 1.89642 127.761  255 255 255
-98.139 -5.18168 131.518  255 255 255
-39.9407 -8.82466 102.131  255 255 255
-36.5289 35.9959 103.682  255 255 255
-44.643 32.6001 107.231  255 255 255
-36.6611 29.3388 102.391  255 255 255
-117.456 18.5517 89.8162  255 255 255
-16.375 12.5804 95.6178  255 255 255
-51.2032 39.7004 112.822  255 255 255
-26.1355 35.8475 99.1303  255 255 255
-54.2382 20.2405 112.188  255 255 255
-84.9186 19.1149 127.362  255 255 255
-33.8277 9.06268 101.404  255 255 255
-47.8258 8.53619 107.158  255 255 255
-51.5728 8.39778 108.72  255 255 255
-77.8611 55.2386 136.064  255 255 255
-72.5716 19.1211 117.964  255 255 255
-66.005 -4.05408 113.883  255 255 255
-52.5317 22.5044 111.06  255 255 255
-94.831 61.105 160.003  255 255 255
-33.8193 37.2184 102.746  255 255 255
-42.3406 36.5562 105.684  255 255 255
-23.2847 28.3716 98.2577  255 255 255
-29.8446 33.7532 101.05  255 255 255
43.0681 55.5536 -10.0029  255 255 255
10.4043 24.0351 -11.5017  255 255 255
51.4945 21.0419 -14.9119  255 255 255
39.7175 6.73022 -10.715  255 255 255
50.8574 5.91219 -16.1866  255 255 255
41.562 -8.15471 -15.7165  255 255 255
-15.5826 -0.451046 95.2536  255 255 255
-15.7149 -3.38915 95.0602  255 255 255
57.0819 -15.4159 -11.9225  255 255 255
29.8854 -24.2002 -18.0958  255 255 255
25.2323 -24.453 -17.6277  255 255 255
11.2012 -28.0967 -8.72313  255 255 255
48.1851 -34.8517 -25.1656  255 255 255
-3.60667 -34.9155 -6.36703  255 255 255
-8.05388 -53.1276 -5.87873  255 255 255
38.1529 -106.4 -23.1426  255 255 255
26.1052 -109.996 -25.4901  255 255 255
37.7348 -116.119 -24.0691  255 255 255
12.1803 55.8017 -4.18932  255 255 255
9.59867 55.0919 -5.33538  255 255 255
10.7857 54.7116 -5.17829  255 255 255
-18.3572 52.6395 9.69913  255 255 255
-22.2994 44.6638 9.09761  255 255 255
18.3409 31.7985 -8.36687  255 255 255
-18.5112 23.8993 3.43178  255 255 255
-14.4138 19.6202 -1.6907  255 255 255
36.521 5.47072 -13.6706  255 255 255
36.7232 -0.259048 -12.2101  255 255 255
57.6026 -0.997308 -8.61814  255 255 255
-30.6474 5.14328 100.284  255 255 255
34.2609 -3.11967 -15.9172  255 255 255
36.9823 -4.44725 -14.5776  255 255 255
39.2358 -6.31603 -14.6982  255 255 255
39.2772 -6.33296 -14.8994  255 255 255
32.9756 -6.68108 -14.8717  255 255 255
36.7793 -7.63271 -14.3658  255 255 255
34.7595 -10.7943 -16.27  255 255 255
-18.0163 -4.53406 94.857  255 255 255
29.2649 -14.9503 -16.3225  255 255 255
42.9985 -21.7043 -20.3399  255 255 255
29.1722 -27.1166 -18.0076  255 255 255
-1.69372 -28.0673 -1.59612  255 255 255
-2.58129 -28.974 -2.2812  255 255 255
-1.86813 -29.704 -3.15142  255 255 255
27.9327 -32.8935 -17.1306  255 255 255
34.2423 -34.7619 -18.814  255 255 255
22.4031 -40.5807 -18.2389  255 255 255
25.7449 -47.6926 -17.2275  255 255 255
15.0748 -49.9482 -11.4827  255 255 255
1.28833 -49.5541 -6.52646  255 255 255
1.28631 -49.5491 -6.50413  255 255 255
38.0303 -52.5886 -17.5497  255 255 255
38.0364 -52.5954 -17.58  255 255 255
23.2706 -52.7746 -17.2128  255 255 255
3.01109 -52.8295 -10.4243  255 255 255
37.5443 -60.6923 -17.6984  255 255 255
27.6123 -64.3466 -20.6772  255 255 255
33.1423 -65.5802 -20.1544  255 255 255
-16.5274 -42.2796 92.2031  255 255 255
41.956 -68.7042 -23.194  255 255 255
32.3217 -68.3644 -19.1664  255 255 255
27.6916 -69.8432 -20.7528  255 255 255
36.2213 -72.5311 -17.665  255 255 255
43.9703 -76.387 -24.6019  255 255 255
-32.4638 -59.2133 95.9176  255 255 255
-41.1914 -75.8724 98.0267  255 255 255
-42.2726 46.7876 33.7346  255 255 255
-2.19222 48.2515 -1.7039  255 255 255
11.0969 25.2605 -11.0195  255 255 255
-18.2768 24.3274 3.77066  255 255 255
-10.249 13.5998 -4.42352  255 255 255
22.6735 -0.26154 -13.8921  255 255 255
-22.6513 3.206 97.3886  255 255 255
42.4602 -4.16078 -15.48  255 255 255
30.1186 -22.2078 -17.9163  255 255 255
12.2693 -21.6071 -10.9576  255 255 255
12.077 -28.3707 -10.4655  255 255 255
-35.8816 -15.4695 100.029  255 255 255
37.8486 -44.3008 -15.465  255 255 255
14.2777 -46.3562 -11.0657  255 255 255
-11.316 -46.0184 1.001  255 255 255
27.3026 -54.9264 -19.4599  255 255 255
37.2733 -55.7538 -17.356  255 255 255
36.7501 -55.8366 -16.8079  255 255 255
36.7517 -55.8385 -16.816  255 255 255
28.2676 -74.5428 -21.2265  255 255 255
-36.3035 -46.1948 97.9133  255 255 255
-35.5225 -48.9808 97.5996  255 255 255
-41.9853 -59.0758 99.3332  255 255 255
-41.9853 -59.0758 99.3332  255 255 255
-38.3559 -67.6573 97.6709  255 255 255
-32.5301 -75.223 95.1507  255 255 255
12.3077 31.7961 -8.75476  255 255 255
35.7992 1.96945 -11.8517  255 255 255
35.8051 1.96769 -11.8815  255 255 255
24.9355 1.37324 -13.6461  255 255 255
34.6894 -5.64045 -15.9185  255 255 255
59.6019 -13.206 -12.1987  255 255 255
42.1099 -25.8228 -15.5056  255 255 255
